0.894406 1.559001 -3.385254 0.474333 0.851049 -0.225218 4500
0.821558 1.649663 -3.327054 0.322001 0.945092 0.055834 2461
0.769729 1.740432 -3.323341 0.376840 0.925317 -0.042181 2303
0.473448 1.649469 -3.247337 0.231424 0.933503 0.273888 2121
1.371051 1.458227 -3.273633 0.468496 0.881372 -0.060792 2866
1.244351 1.376296 -3.253420 0.455513 0.890060 -0.017377 1278
0.318681 1.134981 -3.230821 0.048752 0.994942 -0.087822 1113
0.816305 1.724707 -3.305870 0.171268 0.983239 -0.062514 729
0.970885 1.143350 -3.267890 0.265372 0.964100 -0.009426 626
1.007767 1.812435 -3.338736 0.331179 0.943165 0.027575 462
1.772056 2.036129 -3.312643 0.329510 0.944148 -0.002677 395
0.455649 1.375300 -3.199417 0.315381 0.938860 -0.138117 362
0.693490 0.788904 -3.105443 0.525931 0.839954 0.133695 291
0.260089 1.707424 -3.283159 0.951268 0.306806 0.030978 220
0.747850 1.499704 -3.665471 0.032310 0.995481 -0.089291 227
0.284685 0.530055 -3.277337 0.048099 0.998785 0.010749 92
1.329603 1.334343 -3.246704 0.471164 -0.880877 -0.045382 108
0.492237 1.538211 -3.663438 0.101055 0.993453 -0.053288 153
1.226989 2.061193 -3.369000 0.560768 0.819940 0.115057 94
1.379445 1.572108 -3.207472 0.367294 0.926796 -0.078391 72
1.059860 1.638476 -3.642737 0.064992 -0.992383 0.104654 95
0.817536 1.696996 -3.402387 0.827931 0.057791 -0.557844 75
0.921562 1.136271 -3.605422 0.197906 0.979840 -0.027347 83
0.547997 1.795146 -3.480760 0.215286 0.734406 -0.643662 50
1.099746 1.823372 -3.278600 0.579005 0.814995 -0.023160 45
1.054482 0.889969 -3.233750 0.608325 0.735635 -0.297963 32
1.043709 1.378336 -3.622853 0.183313 0.981039 -0.062916 34
0.628958 1.750124 -3.697514 0.646076 0.761034 -0.058418 37
0.778976 1.485210 -3.447943 0.012078 0.980962 0.193826 53
0.786097 0.974305 -3.430233 0.543685 0.794378 -0.270869 43
0.534539 1.363786 -3.646393 0.111374 -0.989931 0.087365 28
0.901467 1.751292 -3.249100 0.946337 -0.319412 0.049222 20
0.867747 1.355884 -3.256190 0.112786 -0.989390 -0.091576 21
0.202104 1.517456 -3.338938 0.033277 0.997530 0.061854 16
0.859261 1.703600 -3.437269 0.387609 -0.799599 0.458696 26
0.953286 1.322407 -3.259696 0.243868 0.743428 -0.622771 23
0.936981 1.701890 -3.583200 0.227922 0.971721 -0.061725 15
0.798869 1.718985 -3.331750 0.755499 0.484733 -0.440743 20
1.056618 1.679827 -3.419150 0.723003 0.644092 0.249825 20
0.651566 0.716262 -3.283167 0.138529 0.990354 -0.002782 12
0.804851 1.460647 -3.385500 0.925842 -0.357408 0.122781 12
0.918049 1.666627 -3.546067 0.687112 -0.652924 0.318696 15
0.414610 1.668674 -3.373625 0.194394 0.821367 -0.536252 16
0.733099 1.480537 -3.728643 0.031432 0.996770 -0.073897 14
1.017475 1.355401 -3.648176 0.046147 0.975757 -0.213934 17
1.222998 1.486009 -3.642800 0.029864 0.994358 -0.101787 15
0.454216 1.544690 -3.732727 0.118486 -0.992595 0.026760 11
0.730061 1.537659 -3.225200 0.822270 -0.493292 0.283786 10
0.826403 1.477700 -3.552545 0.088673 -0.846673 0.524673 11
1.303672 1.471887 -3.310300 0.532297 0.839423 0.109676 10
1.055111 1.463598 -3.327636 0.484927 -0.720465 -0.495758 11
0.396652 1.295855 -3.424800 0.077180 0.662358 -0.745202 10
0.674943 1.720198 -3.336333 0.499689 0.387340 -0.774777 9
1.247452 1.694408 -3.362091 0.779377 0.626395 0.014183 11
1.015059 1.182405 -3.534500 0.671741 0.726956 -0.142473 8
0.587080 1.788390 -3.601875 0.323490 0.941519 -0.094325 8
0.801799 2.067830 -3.643111 0.165087 0.931088 -0.325301 9
0.540587 0.936891 -3.378833 0.495437 0.691549 -0.525644 6
1.166380 1.181353 -3.150833 0.630575 0.694041 0.347392 6
1.086769 1.478976 -3.529625 0.342981 0.932414 -0.113875 8
0.932892 1.284672 -3.580333 0.351803 0.878583 0.322996 6
0.881012 1.416512 -3.568167 0.890023 -0.279053 0.360539 6
1.254294 1.633374 -3.251429 0.548037 0.829842 -0.104966 7
0.494198 0.610282 -3.238200 0.402052 -0.897287 -0.182294 5
0.400140 1.614977 -3.634333 0.023326 0.998931 0.039920 6
0.646604 1.167791 -3.436800 0.539293 -0.589692 0.601188 5
0.782527 1.680711 -3.179000 0.131676 0.971274 0.198212 5
0.802238 1.581881 -3.330200 0.810889 -0.546761 0.208595 5
0.888133 1.059966 -3.494667 0.330832 0.785278 0.523343 6
1.383187 2.067825 -3.276000 0.642335 0.756365 -0.123767 5
1.293276 1.325184 -3.310500 0.529615 0.848217 0.005946 6
0.992866 1.560769 -3.758500 0.334109 -0.942478 -0.010311 6
1.135071 1.182091 -3.509200 0.524184 0.851588 0.005446 5
1.175918 1.435638 -3.167400 0.712225 0.696714 -0.085589 5
0.377544 0.922334 -3.319750 0.049417 0.997330 0.053766 4
0.722281 1.847152 -3.493167 0.713592 0.693723 -0.097653 6
0.728583 1.969485 -3.311000 0.532636 0.705686 -0.467233 5
0.877176 1.620977 -3.618600 0.590019 -0.791763 -0.158082 5
0.920487 1.545943 -3.408500 0.156376 -0.838243 0.522393 4
0.824075 0.739891 -3.194750 0.732708 0.666813 0.136015 4
1.024290 1.515503 -3.368250 0.073887 -0.925856 -0.370583 4
1.005309 1.906103 -3.394000 0.070253 -0.987226 0.142997 4
1.147037 1.372535 -3.672333 0.130073 0.983464 -0.126016 6
1.283151 1.310692 -3.399000 0.479926 0.877218 0.012611 6
1.222431 1.924311 -3.390000 0.130650 -0.990103 0.051249 4
0.234298 1.109874 -3.220333 0.184179 -0.915719 0.357124 3
0.356710 1.361767 -3.536667 0.216095 -0.041096 -0.975507 3
0.460643 1.828674 -3.216333 0.299451 -0.309074 0.902664 3
1.050874 1.867942 -3.167400 0.942490 0.332272 0.036167 5
1.019428 1.993688 -3.717000 0.994293 0.105587 -0.015286 3
1.163992 1.615699 -3.623667 0.870633 0.324161 -0.370024 3
0.924982 1.137339 -3.183333 0.092197 0.261040 -0.960915 3
1.303801 2.427422 -3.260000 0.983007 0.179128 -0.040136 3
1.162760 2.134683 -3.735333 0.867068 0.299823 0.397869 3
0.137194 1.309654 -3.316500 -0.046159 0.995211 -0.086168 2
0.321103 1.291974 -3.151500 -0.155126 0.804043 -0.573978 2
0.808903 1.719129 -3.663500 0.947529 0.319557 -0.008444 2
1.348701 1.983383 -3.244500 0.843448 0.536269 -0.031789 2
1.276375 1.525928 -3.102500 0.883359 0.466853 0.041538 2
0.809422 0.935261 -3.580000 -0.341625 0.817842 0.463062 2
0.866672 1.929065 -3.716000 0.153484 0.986951 -0.048677 2
0.848194 1.194289 -3.496000 0.719762 -0.349480 0.599839 2
0.894390 1.549946 -3.333000 0.126661 0.874498 -0.468198 2
1.541006 1.707565 -3.366500 0.711960 0.646169 0.274915 2
